VERSION 0.7
FIELDS x y z
SIZE 4 4 4
TYPE F F F
WIDTH 1638
HEIGHT 1
POINTS 1638
DATA ascii
-13.259000 0.591000 -1.836000
-13.253000 0.549000 -1.835000
-13.255000 0.507000 -1.835000
-13.260000 0.466000 -1.835000
-13.265000 0.445000 -1.836000
-13.260000 0.403000 -1.835000
-13.291000 0.362000 -1.839000
-13.168000 0.317000 -1.820000
-13.157000 0.276000 -1.819000
-13.169000 0.235000 -1.820000
-13.148000 0.213000 -1.817000
-13.168000 0.172000 -1.820000
-13.161000 0.131000 -1.819000
-13.159000 0.090000 -1.819000
-13.171000 0.048000 -1.820000
-13.177000 0.007000 -1.821000
-13.173000 -0.034000 -1.821000
-13.199000 -0.055000 -1.825000
-13.199000 -0.097000 -1.825000
-13.199000 -0.138000 -1.825000
-13.182000 -0.179000 -1.822000
-13.160000 -0.220000 -1.819000
-13.157000 -0.262000 -1.819000
-13.152000 -0.303000 -1.818000
-13.148000 -0.324000 -1.817000
-13.143000 -0.365000 -1.817000
-13.134000 -0.406000 -1.816000
-13.134000 -0.447000 -1.816000
-13.129000 -0.488000 -1.815000
-13.117000 -0.529000 -1.814000
-13.114000 -0.570000 -1.813000
-13.113000 -0.591000 -1.813000
-13.095000 -0.631000 -1.811000
-13.071000 -0.671000 -1.808000
-13.053000 -0.712000 -1.805000
-13.039000 -0.752000 -1.803000
-13.009000 -0.791000 -1.799000
-12.997000 -0.832000 -1.798000
-12.993000 -0.852000 -1.797000
-12.991000 -0.893000 -1.797000
-12.988000 -0.933000 -1.797000
-12.975000 -0.974000 -1.796000
-12.958000 -1.013000 -1.794000
-12.929000 -1.052000 -1.790000
-12.918000 -1.092000 -1.789000
-12.906000 -1.111000 -1.787000
-12.901000 -1.152000 -1.787000
-12.883000 -1.191000 -1.785000
-12.872000 -1.231000 -1.783000
-12.868000 -1.271000 -1.783000
-12.860000 -1.311000 -1.783000
-12.856000 -1.352000 -1.783000
-12.849000 -1.371000 -1.782000
-12.833000 -1.410000 -1.780000
-12.841000 -1.452000 -1.782000
-12.844000 -1.493000 -1.783000
-12.829000 -1.532000 -1.782000
-12.828000 -1.573000 -1.783000
-12.827000 -1.614000 -1.783000
-12.823000 -1.634000 -1.783000
-12.819000 -1.674000 -1.783000
-12.818000 -1.715000 -1.784000
-12.815000 -1.756000 -1.784000
-12.817000 -1.797000 -1.785000
-12.819000 -1.838000 -1.786000
-12.811000 -1.878000 -1.786000
-12.814000 -1.899000 -1.787000
-12.822000 -1.942000 -1.789000
-12.802000 -1.980000 -1.787000
-12.809000 -2.022000 -1.789000
-12.815000 -2.064000 -1.791000
-12.804000 -2.104000 -1.790000
-12.799000 -2.124000 -1.790000
-12.819000 -2.168000 -1.794000
-12.799000 -2.206000 -1.792000
-12.813000 -2.250000 -1.796000
-12.833000 -2.295000 -1.800000
-12.793000 -2.330000 -1.795000
-12.758000 -2.365000 -1.790000
-12.749000 -2.384000 -1.789000
-12.708000 -2.418000 -1.784000
-12.681000 -2.454000 -1.781000
-12.656000 -2.490000 -1.779000
-12.623000 -2.525000 -1.775000
-12.603000 -2.562000 -1.773000
-12.599000 -2.603000 -1.773000
-12.579000 -2.619000 -1.771000
-12.558000 -2.656000 -1.769000
-12.538000 -2.693000 -1.767000
-12.523000 -2.731000 -1.766000
-12.509000 -2.769000 -1.765000
-12.502000 -2.809000 -1.766000
-12.476000 -2.844000 -1.763000
-12.477000 -2.865000 -1.764000
-12.468000 -2.904000 -1.764000
-12.436000 -2.938000 -1.760000
-12.500000 -2.995000 -1.772000
-12.492000 -3.034000 -1.772000
-12.513000 -3.081000 -1.777000
-12.517000 -3.124000 -1.779000
-12.489000 -3.138000 -1.775000
-12.423000 -3.163000 -1.766000
-12.360000 -3.188000 -1.758000
-12.294000 -3.212000 -1.749000
-12.229000 -3.236000 -1.740000
-12.224000 -3.276000 -1.741000
-12.176000 -3.305000 -1.735000
-12.125000 -3.311000 -1.728000
-12.074000 -3.338000 -1.722000
-12.067000 -3.377000 -1.722000
-11.992000 -3.397000 -1.712000
-11.909000 -3.414000 -1.700000
-11.879000 -3.446000 -1.697000
-11.830000 -3.472000 -1.691000
-11.804000 -3.485000 -1.688000
-11.780000 -3.518000 -1.686000
-11.753000 -3.550000 -1.683000
-11.740000 -3.587000 -1.683000
-11.727000 -3.623000 -1.683000
-11.697000 -3.654000 -1.680000
-11.672000 -3.687000 -1.678000
-11.657000 -3.702000 -1.676000
-11.634000 -3.735000 -1.674000
-11.596000 -3.763000 -1.670000
-10.905000 -3.578000 -1.561000
-10.832000 -3.592000 -1.551000
-10.787000 -3.615000 -1.545000
-10.768000 -3.646000 -1.544000
-10.747000 -3.658000 -1.542000
-10.708000 -3.682000 -1.537000
-10.638000 -3.696000 -1.528000
-10.578000 -3.712000 -1.520000
-10.575000 -3.749000 -1.521000
-10.554000 -3.779000 -1.520000
-10.498000 -3.796000 -1.513000
-10.414000 -3.784000 -1.500000
-10.294000 -3.778000 -1.482000
-10.275000 -3.807000 -1.481000
-10.274000 -3.844000 -1.483000
-10.275000 -3.881000 -1.485000
-10.266000 -3.914000 -1.486000
-10.142000 -3.886000 -1.466000
-10.037000 -3.882000 -1.451000
-9.848000 -3.845000 -1.422000
-9.871000 -3.890000 -1.428000
-9.607000 -3.856000 -1.388000
-9.773000 -3.958000 -1.418000
-9.259000 -3.768000 -1.334000
-9.244000 -3.796000 -1.333000
-9.281000 -3.845000 -1.341000
-9.232000 -3.859000 -1.335000
-9.133000 -3.852000 -1.321000
-8.997000 -3.828000 -1.300000
-8.959000 -3.845000 -1.296000
-8.953000 -3.859000 -1.296000
-9.092000 -3.953000 -1.321000
-9.137000 -4.006000 -1.331000
-9.153000 -4.048000 -1.336000
-8.765000 -3.910000 -1.273000
-8.781000 -3.950000 -1.278000
-8.536000 -3.873000 -1.238000
-8.582000 -3.910000 -1.247000
-8.489000 -3.900000 -1.234000
-8.660000 -4.011000 -1.265000
-8.608000 -4.020000 -1.258000
-8.311000 -3.914000 -1.210000
-8.468000 -4.020000 -1.238000
-8.405000 -4.023000 -1.230000
-8.313000 -4.027000 -1.218000
-8.324000 -4.065000 -1.222000
-8.357000 -4.113000 -1.229000
-8.495000 -4.214000 -1.255000
-7.936000 -3.970000 -1.162000
-7.604000 -3.834000 -1.107000
-8.251000 -4.175000 -1.219000
-7.522000 -3.838000 -1.096000
-7.779000 -3.999000 -1.142000
-7.747000 -4.014000 -1.139000
-7.670000 -4.004000 -1.128000
-7.417000 -3.903000 -1.086000
-7.512000 -3.983000 -1.105000
-7.467000 -3.974000 -1.098000
-7.313000 -3.922000 -1.074000
-7.330000 -3.961000 -1.079000
-7.380000 -4.018000 -1.090000
-7.243000 -3.973000 -1.068000
-7.213000 -3.986000 -1.065000
-7.191000 -3.989000 -1.062000
-7.123000 -3.981000 -1.052000
-7.069000 -3.980000 -1.045000
-6.921000 -3.926000 -1.021000
-6.891000 -3.938000 -1.018000
-6.870000 -3.954000 -1.017000
-6.779000 -3.931000 -1.003000
-6.832000 -3.976000 -1.013000
-6.897000 -4.042000 -1.027000
-6.898000 -4.072000 -1.029000
-6.761000 -4.020000 -1.007000
-6.536000 -3.915000 -0.969000
-6.481000 -3.910000 -0.962000
-6.475000 -3.934000 -0.963000
-6.456000 -3.936000 -0.961000
-6.418000 -3.941000 -0.956000
-6.387000 -3.950000 -0.953000
-6.097000 -3.799000 -0.903000
-6.108000 -3.832000 -0.907000
-6.090000 -3.847000 -0.906000
-6.078000 -3.866000 -0.906000
-6.048000 -3.861000 -0.902000
-6.046000 -3.886000 -0.903000
-6.114000 -3.957000 -0.918000
-6.262000 -4.080000 -0.947000
-5.822000 -3.821000 -0.869000
-5.818000 -3.845000 -0.871000
-6.116000 -4.068000 -0.928000
-6.253000 -4.173000 -0.954000
-6.212000 -4.174000 -0.949000
-5.579000 -3.777000 -0.834000
-5.521000 -3.763000 -0.826000
-5.712000 -3.945000 -0.866000
-5.916000 -4.112000 -0.906000
-5.960000 -4.157000 -0.916000
-5.869000 -4.121000 -0.901000
-5.672000 -4.010000 -0.866000
-5.620000 -4.000000 -0.859000
-5.498000 -3.940000 -0.839000
-5.441000 -3.925000 -0.830000
-5.358000 -3.892000 -0.817000
-5.550000 -4.044000 -0.854000
-5.455000 -4.000000 -0.839000
-5.337000 -3.940000 -0.819000
-5.348000 -3.975000 -0.823000
-5.407000 -4.045000 -0.837000
-5.307000 -3.997000 -0.820000
-5.315000 -4.016000 -0.823000
-4.993000 -3.799000 -0.764000
-5.151000 -3.944000 -0.796000
-5.263000 -4.055000 -0.820000
-5.239000 -4.063000 -0.818000
-5.311000 -4.144000 -0.834000
-5.393000 -4.235000 -0.853000
-5.261000 -4.173000 -0.831000
-5.389000 -4.301000 -0.859000
-6.198000 -4.973000 -1.020000
-6.084000 -4.914000 -1.000000
-5.976000 -4.858000 -0.982000
-5.555000 -4.548000 -0.902000
-5.531000 -4.543000 -0.899000
-5.063000 -4.188000 -0.809000
-5.323000 -4.457000 -0.866000
-5.325000 -4.488000 -0.869000
-5.024000 -4.262000 -0.812000
-4.998000 -4.268000 -0.809000
-4.969000 -4.257000 -0.805000
-5.052000 -4.354000 -0.824000
-4.930000 -4.277000 -0.802000
-4.915000 -4.292000 -0.802000
-4.906000 -4.311000 -0.803000
-4.858000 -4.296000 -0.796000
-5.387000 -4.790000 -0.907000
-4.826000 -4.309000 -0.793000
-4.822000 -4.332000 -0.795000
-4.830000 -4.367000 -0.800000
-5.166000 -4.697000 -0.872000
-5.190000 -4.749000 -0.880000
-5.053000 -4.653000 -0.855000
-5.066000 -4.695000 -0.860000
-5.119000 -4.759000 -0.873000
-4.994000 -4.673000 -0.850000
-5.166000 -4.862000 -0.889000
-4.639000 -4.425000 -0.784000
-4.613000 -4.428000 -0.782000
-4.419000 -4.271000 -0.744000
-4.755000 -4.606000 -0.817000
-4.500000 -4.389000 -0.765000
-4.308000 -4.229000 -0.727000
-4.330000 -4.277000 -0.735000
-4.422000 -4.395000 -0.757000
-4.463000 -4.463000 -0.769000
-4.386000 -4.400000 -0.754000
-4.267000 -4.309000 -0.731000
-4.237000 -4.306000 -0.728000
-4.441000 -4.540000 -0.775000
-6.111000 -6.272000 -1.144000
-4.346000 -4.500000 -0.761000
-4.329000 -4.511000 -0.760000
-4.520000 -4.722000 -0.804000
-4.576000 -4.811000 -0.820000
-4.564000 -4.828000 -0.820000
-4.428000 -4.715000 -0.793000
-4.510000 -4.832000 -0.815000
-4.416000 -4.761000 -0.797000
-4.537000 -4.921000 -0.828000
-4.356000 -4.741000 -0.789000
-4.287000 -4.697000 -0.777000
-4.230000 -4.663000 -0.767000
-4.450000 -4.936000 -0.820000
-3.387000 -3.789000 -0.581000
-4.276000 -4.834000 -0.791000
-4.232000 -4.800000 -0.783000
-4.141000 -4.727000 -0.765000
-3.270000 -3.765000 -0.566000
-3.241000 -3.756000 -0.562000
-3.232000 -3.769000 -0.563000
-3.222000 -3.781000 -0.563000
-3.233000 -3.818000 -0.569000
-3.183000 -3.772000 -0.558000
-3.223000 -3.842000 -0.571000
-3.189000 -3.827000 -0.565000
-3.137000 -3.790000 -0.556000
-3.133000 -3.809000 -0.558000
-3.431000 -4.193000 -0.632000
-3.371000 -4.148000 -0.621000
-3.256000 -4.020000 -0.595000
-3.279000 -4.074000 -0.604000
-3.414000 -4.268000 -0.640000
-3.270000 -4.115000 -0.608000
-3.040000 -3.853000 -0.554000
-3.120000 -3.979000 -0.577000
-3.100000 -3.979000 -0.575000
-3.071000 -3.955000 -0.569000
-2.963000 -3.843000 -0.546000
-2.932000 -3.827000 -0.541000
-5.857000 -7.702000 -1.285000
-5.757000 -7.622000 -1.266000
-5.642000 -7.543000 -1.245000
-3.211000 -4.298000 -0.624000
-3.230000 -4.394000 -0.638000
-3.155000 -4.321000 -0.622000
-3.187000 -4.394000 -0.634000
-3.008000 -4.177000 -0.591000
-2.937000 -4.106000 -0.576000
-2.910000 -4.082000 -0.570000
-2.758000 -3.896000 -0.534000
-2.738000 -3.894000 -0.531000
-2.706000 -3.875000 -0.526000
-2.684000 -3.869000 -0.524000
-2.711000 -3.934000 -0.534000
-2.703000 -3.949000 -0.535000
-2.685000 -3.935000 -0.532000
-2.664000 -3.932000 -0.530000
-2.641000 -3.924000 -0.527000
-2.628000 -3.933000 -0.527000
-2.603000 -3.921000 -0.523000
-2.593000 -3.933000 -0.524000
-2.603000 -3.961000 -0.528000
-2.587000 -3.964000 -0.528000
-2.548000 -3.931000 -0.520000
-2.540000 -3.946000 -0.521000
-2.493000 -3.901000 -0.511000
-2.491000 -3.925000 -0.515000
-2.486000 -3.945000 -0.517000
-2.488000 -3.960000 -0.519000
-2.469000 -3.958000 -0.517000
-2.444000 -3.946000 -0.513000
-2.423000 -3.940000 -0.511000
-2.422000 -3.966000 -0.514000
-2.389000 -3.940000 -0.508000
-2.358000 -3.917000 -0.503000
-2.302000 -3.838000 -0.488000
-2.298000 -3.859000 -0.490000
-2.292000 -3.876000 -0.492000
-2.278000 -3.881000 -0.492000
-2.282000 -3.916000 -0.497000
-2.259000 -3.904000 -0.493000
-2.268000 -3.947000 -0.500000
-2.286000 -3.993000 -0.507000
-2.259000 -3.975000 -0.503000
-2.255000 -3.997000 -0.505000
-2.173000 -3.882000 -0.484000
-2.204000 -3.965000 -0.497000
-2.180000 -3.951000 -0.494000
-2.173000 -3.968000 -0.495000
-2.160000 -3.960000 -0.493000
-2.148000 -3.967000 -0.493000
-2.135000 -3.973000 -0.493000
-2.128000 -3.990000 -0.495000
-2.182000 -4.121000 -0.517000
-2.132000 -4.058000 -0.505000
-2.155000 -4.133000 -0.516000
-2.075000 -3.996000 -0.492000
-2.041000 -3.960000 -0.485000
-1.981000 -3.876000 -0.469000
-1.970000 -3.884000 -0.469000
-1.951000 -3.877000 -0.467000
-1.932000 -3.869000 -0.465000
-1.904000 -3.844000 -0.459000
-1.904000 -3.859000 -0.461000
-1.881000 -3.844000 -0.458000
-1.900000 -3.913000 -0.469000
-2.050000 -4.250000 -0.525000
-1.946000 -4.069000 -0.493000
-1.870000 -3.945000 -0.471000
-1.855000 -3.946000 -0.470000
-1.855000 -3.961000 -0.472000
-1.820000 -3.919000 -0.464000
-1.797000 -3.901000 -0.460000
-1.779000 -3.894000 -0.458000
-1.807000 -3.988000 -0.473000
-1.752000 -3.902000 -0.458000
-1.744000 -3.916000 -0.459000
-1.735000 -3.912000 -0.458000
-1.739000 -3.955000 -0.464000
-1.727000 -3.961000 -0.464000
-1.741000 -4.026000 -0.474000
-1.683000 -3.928000 -0.457000
-1.662000 -3.913000 -0.454000
-1.662000 -3.946000 -0.458000
-1.675000 -3.996000 -0.466000
-1.648000 -3.964000 -0.460000
-1.634000 -3.968000 -0.460000
-1.615000 -3.956000 -0.457000
-1.600000 -3.954000 -0.456000
-1.671000 -4.164000 -0.490000
-1.676000 -4.196000 -0.495000
-1.668000 -4.214000 -0.497000
-1.656000 -4.221000 -0.497000
-1.611000 -4.147000 -0.484000
-1.576000 -4.097000 -0.475000
-1.573000 -4.126000 -0.479000
-1.617000 -4.279000 -0.503000
-1.607000 -4.274000 -0.502000
-1.589000 -4.268000 -0.500000
-1.635000 -4.430000 -0.526000
-1.570000 -4.298000 -0.503000
-1.521000 -4.206000 -0.488000
-1.509000 -4.215000 -0.488000
-1.454000 -4.104000 -0.469000
-1.447000 -4.124000 -0.472000
-1.373000 -3.936000 -0.441000
-1.372000 -3.972000 -0.446000
-1.356000 -3.967000 -0.445000
-1.333000 -3.941000 -0.440000
-1.347000 -4.024000 -0.452000
-1.306000 -3.944000 -0.439000
-1.312000 -3.982000 -0.445000
-1.290000 -3.958000 -0.440000
-1.258000 -3.902000 -0.430000
-1.257000 -3.941000 -0.436000
-1.256000 -3.981000 -0.442000
-1.240000 -3.972000 -0.440000
-1.234000 -3.998000 -0.443000
-1.229000 -4.004000 -0.444000
-1.216000 -4.006000 -0.444000
-1.249000 -4.157000 -0.467000
-1.195000 -4.027000 -0.446000
-1.194000 -4.070000 -0.452000
-1.194000 -4.116000 -0.459000
-1.168000 -4.076000 -0.452000
-1.133000 -3.981000 -0.436000
-1.140000 -4.051000 -0.447000
-1.110000 -3.993000 -0.437000
-1.097000 -3.995000 -0.437000
-1.091000 -4.021000 -0.441000
-1.088000 -4.059000 -0.446000
-1.108000 -4.186000 -0.466000
-1.084000 -4.121000 -0.455000
-1.155000 -4.440000 -0.505000
-1.069000 -4.172000 -0.462000
-1.008000 -3.990000 -0.433000
-1.002000 -4.016000 -0.436000
-0.986000 -4.008000 -0.435000
-0.964000 -3.974000 -0.429000
-0.981000 -4.070000 -0.444000
-0.940000 -3.958000 -0.425000
-0.924000 -3.943000 -0.423000
-0.899000 -3.894000 -0.415000
-0.877000 -3.855000 -0.408000
-0.872000 -3.888000 -0.413000
-0.856000 -3.874000 -0.410000
-0.844000 -3.852000 -0.406000
-0.834000 -3.864000 -0.408000
-0.811000 -3.816000 -0.400000
-0.800000 -3.823000 -0.401000
-0.790000 -3.833000 -0.402000
-0.785000 -3.868000 -0.407000
-0.777000 -3.860000 -0.405000
-0.765000 -3.864000 -0.406000
-0.754000 -3.873000 -0.407000
-0.722000 -3.776000 -0.391000
-0.717000 -3.815000 -0.397000
-0.706000 -3.821000 -0.398000
-0.694000 -3.823000 -0.398000
-0.690000 -3.832000 -0.399000
-0.695000 -3.930000 -0.414000
-0.669000 -3.858000 -0.402000
-0.651000 -3.827000 -0.397000
-0.642000 -3.845000 -0.399000
-0.628000 -3.833000 -0.397000
-0.610000 -3.802000 -0.392000
-0.609000 -3.832000 -0.397000
-0.600000 -3.855000 -0.400000
-0.586000 -3.845000 -0.398000
-0.587000 -3.927000 -0.411000
-0.578000 -3.953000 -0.414000
-0.578000 -4.038000 -0.427000
-0.558000 -3.991000 -0.420000
-0.565000 -4.084000 -0.434000
-0.549000 -4.059000 -0.430000
-0.531000 -4.023000 -0.424000
-0.517000 -4.019000 -0.423000
-0.502000 -4.001000 -0.420000
-0.472000 -3.865000 -0.399000
-0.456000 -3.837000 -0.394000
-0.451000 -3.844000 -0.395000
-0.436000 -3.822000 -0.392000
-0.424000 -3.821000 -0.391000
-0.412000 -3.828000 -0.392000
-0.404000 -3.861000 -0.397000
-0.396000 -3.907000 -0.404000
-0.383000 -3.899000 -0.402000
-0.381000 -3.937000 -0.408000
-0.366000 -3.916000 -0.405000
-0.356000 -3.935000 -0.408000
-0.340000 -3.901000 -0.402000
-0.327000 -3.892000 -0.401000
-0.312000 -3.865000 -0.396000
-0.308000 -3.882000 -0.399000
-0.293000 -3.853000 -0.394000
-0.280000 -3.846000 -0.393000
-0.268000 -3.843000 -0.392000
-0.256000 -3.846000 -0.393000
-0.242000 -3.825000 -0.389000
-0.232000 -3.853000 -0.394000
-0.224000 -3.826000 -0.389000
-0.211000 -3.811000 -0.387000
-0.201000 -3.837000 -0.391000
-0.188000 -3.820000 -0.388000
-0.179000 -3.880000 -0.397000
-0.168000 -3.900000 -0.400000
-0.155000 -3.895000 -0.399000
-0.148000 -3.871000 -0.396000
-0.136000 -3.882000 -0.397000
-0.123000 -3.842000 -0.391000
-0.110000 -3.827000 -0.389000
-0.098000 -3.821000 -0.388000
-0.086000 -3.822000 -0.388000
-0.074000 -3.854000 -0.393000
-0.069000 -3.860000 -0.394000
-0.056000 -3.854000 -0.393000
-0.044000 -3.842000 -0.391000
-0.032000 -3.834000 -0.390000
-0.020000 -3.868000 -0.395000
-0.008000 -3.904000 -0.400000
-0.002000 -3.927000 -0.404000
0.010000 -3.937000 -0.405000
0.022000 -3.933000 -0.405000
0.035000 -3.933000 -0.405000
0.047000 -3.957000 -0.408000
0.059000 -3.913000 -0.402000
0.071000 -3.905000 -0.401000
0.078000 -3.921000 -0.403000
0.091000 -3.972000 -0.411000
0.103000 -3.956000 -0.408000
0.115000 -3.951000 -0.408000
0.127000 -3.931000 -0.405000
0.138000 -3.870000 -0.395000
0.150000 -3.867000 -0.395000
0.157000 -3.893000 -0.399000
0.170000 -3.914000 -0.402000
0.178000 -3.815000 -0.387000
0.191000 -3.830000 -0.390000
0.204000 -3.859000 -0.394000
0.218000 -3.892000 -0.399000
0.241000 -4.090000 -0.430000
0.242000 -3.983000 -0.414000
0.253000 -3.963000 -0.411000
0.258000 -3.848000 -0.393000
0.273000 -3.878000 -0.398000
0.289000 -3.945000 -0.408000
0.303000 -3.959000 -0.411000
0.311000 -3.994000 -0.416000
0.330000 -4.076000 -0.429000
0.341000 -4.044000 -0.424000
0.350000 -4.005000 -0.418000
0.363000 -4.012000 -0.419000
0.374000 -3.985000 -0.415000
0.388000 -4.002000 -0.418000
0.391000 -3.969000 -0.413000
0.404000 -3.968000 -0.413000
0.416000 -3.961000 -0.412000
0.426000 -3.934000 -0.408000
0.440000 -3.950000 -0.411000
0.459000 -4.016000 -0.422000
0.491000 -4.187000 -0.448000
0.494000 -4.153000 -0.443000
0.538000 -4.419000 -0.484000
0.542000 -4.336000 -0.472000
0.582000 -4.547000 -0.505000
0.571000 -4.349000 -0.474000
0.574000 -4.261000 -0.461000
0.588000 -4.267000 -0.462000
0.593000 -4.250000 -0.460000
0.592000 -4.144000 -0.444000
0.592000 -4.050000 -0.429000
0.591000 -3.953000 -0.415000
0.600000 -3.927000 -0.411000
0.614000 -3.937000 -0.413000
0.620000 -3.934000 -0.412000
0.660000 -4.108000 -0.440000
0.700000 -4.280000 -0.467000
0.699000 -4.190000 -0.453000
0.667000 -3.912000 -0.410000
0.677000 -3.893000 -0.408000
0.698000 -3.943000 -0.416000
0.702000 -3.928000 -0.414000
0.698000 -3.833000 -0.399000
5.641000 -30.908001 -4.616000
0.733000 -3.959000 -0.419000
5.741000 -30.906000 -4.619000
5.869000 -31.049000 -4.644000
5.943000 -31.173000 -4.665000
6.088000 -31.396999 -4.703000
6.374000 -32.335999 -4.852000
6.173000 -30.796000 -4.615000
7.587000 -37.271000 -5.630000
7.701000 -37.235001 -5.628000
7.810000 -37.169998 -5.622000
6.638000 -31.086000 -4.673000
6.677000 -31.033001 -4.666000
6.792000 -31.089001 -4.678000
6.920000 -31.208000 -4.700000
8.163000 -36.292000 -5.502000
8.263000 -36.205002 -5.492000
8.363000 -36.117001 -5.483000
8.406000 -36.048000 -5.474000
8.502000 -35.948002 -5.462000
8.599000 -35.854000 -5.452000
8.695000 -35.757999 -5.441000
8.793000 -35.671001 -5.431000
8.891000 -35.587002 -5.423000
2.289000 -8.788000 -1.194000
2.300000 -8.718000 -1.184000
2.336000 -8.743000 -1.189000
2.369000 -8.757000 -1.192000
2.388000 -8.717000 -1.187000
2.388000 -8.610000 -1.171000
2.406000 -8.621000 -1.174000
2.431000 -8.606000 -1.172000
2.451000 -8.576000 -1.169000
2.499000 -8.638000 -1.180000
2.539000 -8.676000 -1.187000
2.564000 -8.662000 -1.186000
7.679000 -25.674999 -3.908000
2.569000 -8.578000 -1.174000
7.683000 -25.395000 -3.867000
2.729000 -8.763000 -1.208000
2.753000 -8.743000 -1.207000
2.772000 -8.706000 -1.202000
2.790000 -8.669000 -1.198000
2.798000 -8.648000 -1.195000
2.820000 -8.622000 -1.192000
2.840000 -8.592000 -1.189000
2.878000 -8.617000 -1.194000
2.906000 -8.610000 -1.195000
2.944000 -8.633000 -1.200000
2.965000 -8.651000 -1.203000
8.115000 -23.573000 -3.622000
8.155000 -23.450001 -3.606000
8.210000 -23.370001 -3.598000
8.268000 -23.299000 -3.590000
8.363000 -23.334999 -3.600000
8.345000 -23.056999 -3.559000
3.216000 -8.796000 -1.237000
3.260000 -8.831000 -1.245000
3.271000 -8.774000 -1.237000
3.295000 -8.755000 -1.235000
3.330000 -8.764000 -1.239000
3.356000 -8.748000 -1.238000
3.388000 -8.751000 -1.240000
3.389000 -8.712000 -1.235000
3.519000 -8.965000 -1.278000
1.572000 -3.929000 -0.451000
1.590000 -3.937000 -0.453000
1.593000 -3.910000 -0.449000
1.621000 -3.943000 -0.455000
1.624000 -3.933000 -0.454000
1.638000 -3.932000 -0.455000
1.647000 -3.918000 -0.453000
1.651000 -3.892000 -0.450000
1.665000 -3.893000 -0.451000
1.673000 -3.877000 -0.449000
1.691000 -3.886000 -0.452000
1.699000 -3.889000 -0.452000
1.715000 -3.890000 -0.454000
1.725000 -3.881000 -0.453000
1.733000 -3.865000 -0.451000
1.762000 -3.898000 -0.458000
1.779000 -3.903000 -0.459000
1.787000 -3.888000 -0.458000
1.799000 -3.898000 -0.460000
1.814000 -3.898000 -0.461000
1.824000 -3.888000 -0.460000
1.841000 -3.892000 -0.462000
1.859000 -3.898000 -0.464000
1.863000 -3.876000 -0.461000
1.880000 -3.895000 -0.465000
1.891000 -3.887000 -0.465000
1.910000 -3.896000 -0.467000
1.924000 -3.893000 -0.468000
1.946000 -3.907000 -0.471000
1.956000 -3.897000 -0.470000
1.973000 -3.900000 -0.472000
1.981000 -3.900000 -0.472000
1.995000 -3.897000 -0.473000
2.015000 -3.907000 -0.476000
2.039000 -3.923000 -0.480000
2.047000 -3.908000 -0.478000
2.063000 -3.909000 -0.479000
2.077000 -3.906000 -0.480000
2.090000 -3.915000 -0.482000
2.104000 -3.912000 -0.483000
2.121000 -3.914000 -0.484000
2.123000 -3.888000 -0.481000
2.160000 -3.928000 -0.489000
2.175000 -3.925000 -0.490000
2.189000 -3.921000 -0.490000
2.202000 -3.930000 -0.492000
2.210000 -3.916000 -0.491000
2.238000 -3.937000 -0.496000
2.247000 -3.925000 -0.495000
2.269000 -3.935000 -0.498000
2.268000 -3.904000 -0.494000
2.294000 -3.920000 -0.498000
2.312000 -3.937000 -0.502000
2.328000 -3.937000 -0.503000
2.339000 -3.926000 -0.502000
2.358000 -3.931000 -0.505000
2.369000 -3.922000 -0.504000
2.382000 -3.914000 -0.504000
2.401000 -3.932000 -0.508000
2.408000 -3.916000 -0.507000
2.427000 -3.919000 -0.508000
2.446000 -3.923000 -0.511000
2.458000 -3.914000 -0.510000
2.469000 -3.904000 -0.510000
2.495000 -3.918000 -0.514000
2.501000 -3.914000 -0.514000
2.524000 -3.923000 -0.517000
2.545000 -3.928000 -0.519000
2.555000 -3.917000 -0.519000
2.576000 -3.922000 -0.521000
2.598000 -3.929000 -0.524000
2.605000 -3.913000 -0.522000
2.636000 -3.947000 -0.529000
2.648000 -3.938000 -0.529000
2.663000 -3.933000 -0.530000
2.671000 -3.918000 -0.529000
2.694000 -3.926000 -0.532000
2.705000 -3.916000 -0.531000
2.731000 -3.927000 -0.535000
2.751000 -3.942000 -0.539000
2.769000 -3.942000 -0.540000
2.787000 -3.941000 -0.542000
2.811000 -3.949000 -0.545000
2.823000 -3.940000 -0.545000
2.842000 -3.940000 -0.547000
2.861000 -3.954000 -0.550000
2.867000 -3.935000 -0.548000
2.892000 -3.944000 -0.551000
2.917000 -3.952000 -0.555000
2.932000 -3.946000 -0.555000
2.950000 -3.945000 -0.557000
2.962000 -3.936000 -0.557000
2.981000 -3.948000 -0.560000
3.001000 -3.948000 -0.562000
3.022000 -3.950000 -0.564000
3.040000 -3.948000 -0.566000
3.063000 -3.953000 -0.568000
3.079000 -3.948000 -0.569000
3.100000 -3.949000 -0.571000
3.105000 -3.943000 -0.571000
3.136000 -3.956000 -0.576000
3.142000 -3.939000 -0.574000
3.174000 -3.954000 -0.579000
3.196000 -3.956000 -0.581000
3.214000 -3.952000 -0.583000
3.236000 -3.954000 -0.585000
3.247000 -3.955000 -0.586000
3.266000 -3.953000 -0.588000
3.297000 -3.965000 -0.592000
3.321000 -3.969000 -0.595000
3.341000 -3.967000 -0.597000
3.362000 -3.967000 -0.599000
3.390000 -3.975000 -0.603000
3.402000 -3.976000 -0.604000
3.420000 -3.972000 -0.605000
3.441000 -3.971000 -0.607000
3.457000 -3.964000 -0.608000
3.485000 -3.971000 -0.612000
3.497000 -3.960000 -0.612000
3.511000 -3.964000 -0.614000
3.528000 -3.957000 -0.614000
3.564000 -3.973000 -0.620000
3.590000 -3.976000 -0.623000
3.603000 -3.966000 -0.623000
3.625000 -3.965000 -0.625000
3.651000 -3.968000 -0.628000
3.665000 -3.971000 -0.630000
3.692000 -3.976000 -0.634000
3.713000 -3.973000 -0.635000
3.732000 -3.969000 -0.637000
3.767000 -3.981000 -0.642000
3.789000 -3.980000 -0.644000
3.811000 -3.978000 -0.646000
3.830000 -3.985000 -0.649000
3.859000 -3.990000 -0.653000
3.889000 -3.996000 -0.657000
3.914000 -3.997000 -0.659000
3.927000 -3.984000 -0.659000
3.950000 -3.983000 -0.662000
3.974000 -3.982000 -0.664000
3.990000 -3.986000 -0.666000
4.015000 -3.986000 -0.669000
4.044000 -3.990000 -0.673000
4.064000 -3.984000 -0.674000
4.103000 -3.997000 -0.680000
4.134000 -4.003000 -0.684000
4.164000 -4.006000 -0.687000
4.180000 -4.009000 -0.690000
4.192000 -3.996000 -0.690000
4.216000 -3.994000 -0.692000
4.250000 -4.001000 -0.697000
4.274000 -3.998000 -0.699000
4.303000 -4.000000 -0.702000
4.336000 -4.019000 -0.708000
4.368000 -4.023000 -0.712000
4.381000 -4.009000 -0.712000
4.406000 -4.007000 -0.715000
4.428000 -4.001000 -0.717000
4.458000 -4.003000 -0.720000
4.475000 -3.993000 -0.721000
4.507000 -4.010000 -0.727000
4.520000 -3.996000 -0.727000
4.541000 -3.989000 -0.728000
4.579000 -3.997000 -0.734000
4.593000 -3.984000 -0.734000
4.624000 -3.985000 -0.737000
4.657000 -3.989000 -0.742000
4.675000 -3.992000 -0.744000
4.701000 -3.989000 -0.747000
4.729000 -3.987000 -0.750000
4.782000 -4.006000 -0.758000
4.808000 -4.003000 -0.761000
4.848000 -4.010000 -0.766000
4.868000 -4.001000 -0.768000
4.920000 -4.031000 -0.777000
4.948000 -4.029000 -0.780000
4.978000 -4.027000 -0.783000
5.013000 -4.030000 -0.788000
5.048000 -4.031000 -0.792000
5.079000 -4.030000 -0.796000
5.118000 -4.035000 -0.801000
5.155000 -4.052000 -0.807000
5.172000 -4.039000 -0.808000
5.210000 -4.042000 -0.813000
5.234000 -4.034000 -0.815000
5.260000 -4.029000 -0.817000
5.295000 -4.029000 -0.822000
5.352000 -4.046000 -0.830000
5.355000 -4.035000 -0.830000
5.388000 -4.034000 -0.833000
5.454000 -4.057000 -0.844000
5.477000 -4.047000 -0.846000
5.534000 -4.063000 -0.854000
5.548000 -4.047000 -0.854000
5.586000 -4.061000 -0.860000
5.604000 -4.047000 -0.861000
5.661000 -4.062000 -0.870000
5.681000 -4.049000 -0.871000
5.735000 -4.061000 -0.879000
5.753000 -4.046000 -0.880000
5.794000 -4.049000 -0.885000
5.825000 -4.057000 -0.890000
5.882000 -4.069000 -0.898000
5.914000 -4.064000 -0.902000
5.974000 -4.078000 -0.910000
6.003000 -4.070000 -0.913000
6.024000 -4.057000 -0.915000
6.078000 -4.065000 -0.923000
6.112000 -4.075000 -0.928000
6.153000 -4.074000 -0.933000
6.180000 -4.065000 -0.936000
6.224000 -4.066000 -0.941000
6.255000 -4.058000 -0.945000
6.323000 -4.074000 -0.955000
6.355000 -4.067000 -0.958000
6.400000 -4.082000 -0.965000
6.433000 -4.074000 -0.969000
6.502000 -4.090000 -0.979000
6.534000 -4.081000 -0.983000
6.587000 -4.086000 -0.990000
6.623000 -4.080000 -0.994000
6.674000 -4.083000 -1.001000
6.713000 -4.092000 -1.007000
6.756000 -4.089000 -1.012000
6.792000 -4.082000 -1.016000
6.848000 -4.086000 -1.024000
6.886000 -4.080000 -1.029000
6.945000 -4.086000 -1.037000
6.998000 -4.088000 -1.044000
7.039000 -4.097000 -1.050000
7.086000 -4.095000 -1.056000
7.150000 -4.102000 -1.065000
7.185000 -4.092000 -1.069000
7.232000 -4.089000 -1.075000
7.283000 -4.088000 -1.082000
7.336000 -4.103000 -1.090000
7.373000 -4.093000 -1.094000
7.448000 -4.104000 -1.105000
7.501000 -4.103000 -1.112000
7.552000 -4.100000 -1.119000
7.615000 -4.104000 -1.128000
7.678000 -4.107000 -1.136000
7.726000 -4.117000 -1.144000
7.781000 -4.115000 -1.151000
7.831000 -4.110000 -1.157000
7.889000 -4.110000 -1.165000
7.941000 -4.105000 -1.172000
7.999000 -4.104000 -1.180000
8.054000 -4.100000 -1.187000
8.117000 -4.116000 -1.197000
8.174000 -4.113000 -1.204000
8.250000 -4.119000 -1.215000
8.343000 -4.133000 -1.229000
8.406000 -4.131000 -1.237000
8.472000 -4.131000 -1.246000
8.529000 -4.126000 -1.254000
8.598000 -4.143000 -1.265000
8.662000 -4.141000 -1.273000
8.756000 -4.152000 -1.287000
8.806000 -4.142000 -1.293000
8.950000 -4.176000 -1.315000
7.716000 -3.566000 -1.105000
7.719000 -3.554000 -1.104000
7.729000 -3.528000 -1.104000
7.738000 -3.503000 -1.104000
7.736000 -3.473000 -1.102000
7.738000 -3.445000 -1.100000
7.742000 -3.417000 -1.099000
7.758000 -3.395000 -1.100000
7.743000 -3.374000 -1.096000
7.752000 -3.349000 -1.096000
7.746000 -3.318000 -1.093000
7.748000 -3.290000 -1.092000
7.765000 -3.268000 -1.093000
7.766000 -3.240000 -1.092000
7.778000 -3.217000 -1.092000
7.765000 -3.197000 -1.089000
7.779000 -3.174000 -1.089000
7.765000 -3.140000 -1.086000
7.793000 -3.123000 -1.089000
7.792000 -3.094000 -1.087000
7.776000 -3.059000 -1.082000
7.809000 -3.044000 -1.086000
7.799000 -3.026000 -1.084000
7.794000 -2.996000 -1.082000
7.803000 -2.971000 -1.082000
7.811000 -2.946000 -1.081000
7.807000 -2.917000 -1.079000
7.801000 -2.886000 -1.077000
7.816000 -2.864000 -1.078000
7.806000 -2.846000 -1.075000
7.807000 -2.819000 -1.074000
7.823000 -2.797000 -1.075000
7.815000 -2.767000 -1.072000
7.822000 -2.741000 -1.072000
7.833000 -2.717000 -1.072000
7.831000 -2.703000 -1.072000
7.841000 -2.679000 -1.072000
7.850000 -2.655000 -1.072000
7.841000 -2.624000 -1.069000
7.853000 -2.601000 -1.070000
7.863000 -2.577000 -1.070000
7.860000 -2.548000 -1.068000
7.849000 -2.531000 -1.066000
7.844000 -2.502000 -1.064000
7.846000 -2.476000 -1.063000
7.886000 -2.461000 -1.068000
8.007000 -2.472000 -1.086000
8.156000 -2.490000 -1.109000
8.387000 -2.518000 -1.144000
8.395000 -2.492000 -1.144000
8.556000 -2.511000 -1.169000
8.558000 -2.483000 -1.168000
8.545000 -2.450000 -1.164000
8.561000 -2.425000 -1.165000
8.562000 -2.396000 -1.165000
8.566000 -2.383000 -1.165000
8.960000 -2.464000 -1.226000
8.976000 -2.438000 -1.227000
12.206000 -3.283000 -1.739000
12.224000 -3.247000 -1.740000
12.253000 -3.214000 -1.743000
12.276000 -3.179000 -1.745000
12.283000 -3.160000 -1.746000
12.328000 -3.130000 -1.751000
12.345000 -3.093000 -1.752000
12.370000 -3.058000 -1.755000
12.405000 -3.025000 -1.759000
12.426000 -2.989000 -1.760000
12.458000 -2.956000 -1.764000
12.499000 -2.945000 -1.770000
12.520000 -2.908000 -1.772000
12.537000 -2.871000 -1.773000
12.563000 -2.835000 -1.776000
12.587000 -2.799000 -1.778000
12.613000 -2.764000 -1.781000
12.591000 -2.697000 -1.775000
12.608000 -2.659000 -1.776000
12.637000 -2.624000 -1.780000
12.653000 -2.585000 -1.781000
12.655000 -2.544000 -1.780000
12.671000 -2.506000 -1.781000
12.675000 -2.486000 -1.781000
12.675000 -2.445000 -1.780000
12.686000 -2.406000 -1.781000
12.684000 -2.364000 -1.779000
12.694000 -2.325000 -1.779000
12.709000 -2.286000 -1.781000
12.727000 -2.248000 -1.783000
12.725000 -2.227000 -1.782000
12.742000 -2.189000 -1.783000
12.754000 -2.150000 -1.784000
12.765000 -2.111000 -1.785000
12.783000 -2.072000 -1.786000
12.794000 -2.033000 -1.787000
12.807000 -2.014000 -1.789000
12.819000 -1.975000 -1.789000
12.825000 -1.935000 -1.789000
12.837000 -1.895000 -1.790000
12.862000 -1.858000 -1.793000
12.874000 -1.818000 -1.794000
12.881000 -1.778000 -1.795000
12.898000 -1.760000 -1.797000
12.901000 -1.719000 -1.796000
12.924000 -1.681000 -1.799000
12.943000 -1.642000 -1.801000
12.956000 -1.602000 -1.803000
12.971000 -1.563000 -1.804000
12.999000 -1.525000 -1.808000
13.008000 -1.505000 -1.809000
13.034000 -1.467000 -1.812000
13.052000 -1.427000 -1.814000
13.078000 -1.388000 -1.817000
13.112000 -1.350000 -1.822000
13.136000 -1.311000 -1.825000
13.142000 -1.270000 -1.825000
13.191000 -1.254000 -1.832000
13.191000 -1.212000 -1.832000
13.215000 -1.173000 -1.835000
13.230000 -1.132000 -1.837000
13.247000 -1.092000 -1.839000
13.262000 -1.051000 -1.841000
13.277000 -1.010000 -1.842000
13.293000 -0.991000 -1.845000
13.318000 -0.950000 -1.848000
13.336000 -0.910000 -1.850000
13.355000 -0.869000 -1.853000
13.358000 -0.827000 -1.853000
13.380000 -0.786000 -1.856000
13.375000 -0.765000 -1.855000
13.387000 -0.723000 -1.856000
13.409000 -0.682000 -1.859000
13.423000 -0.641000 -1.861000
13.435000 -0.599000 -1.863000
13.457000 -0.558000 -1.866000
13.468000 -0.516000 -1.867000
13.485000 -0.495000 -1.870000
13.508000 -0.454000 -1.873000
13.509000 -0.411000 -1.873000
13.509000 -0.369000 -1.873000
13.525000 -0.327000 -1.875000
13.526000 -0.284000 -1.875000
13.513000 -0.241000 -1.873000
13.526000 -0.220000 -1.875000
13.520000 -0.178000 -1.874000
13.541000 -0.136000 -1.877000
13.551000 -0.093000 -1.879000
13.571000 -0.051000 -1.882000
13.604000 -0.008000 -1.887000
12.289000 0.028000 -1.826000
12.285000 0.048000 -1.826000
12.302000 0.086000 -1.828000
12.300000 0.125000 -1.828000
12.302000 0.164000 -1.828000
12.309000 0.203000 -1.830000
12.330000 0.242000 -1.833000
12.317000 0.280000 -1.831000
12.347000 0.300000 -1.836000
12.330000 0.339000 -1.833000
12.307000 0.377000 -1.830000
12.310000 0.415000 -1.831000
12.302000 0.454000 -1.830000
12.319000 0.493000 -1.833000
12.315000 0.532000 -1.832000
12.320000 0.551000 -1.833000
12.320000 0.590000 -1.833000
12.334000 0.630000 -1.836000
12.342000 0.669000 -1.838000
12.350000 0.708000 -1.839000
12.355000 0.748000 -1.840000
12.388000 0.789000 -1.846000
12.409000 0.810000 -1.849000
12.418000 0.850000 -1.851000
12.433000 0.890000 -1.854000
12.458000 0.931000 -1.859000
12.465000 0.971000 -1.860000
12.479000 1.012000 -1.863000
12.494000 1.052000 -1.866000
12.504000 1.073000 -1.868000
12.506000 1.113000 -1.869000
12.528000 1.155000 -1.873000
12.554000 1.197000 -1.877000
12.554000 1.237000 -1.878000
12.562000 1.277000 -1.880000
12.576000 1.299000 -1.882000
12.589000 1.340000 -1.885000
12.612000 1.383000 -1.890000
12.598000 1.421000 -1.888000
12.631000 1.465000 -1.894000
12.636000 1.506000 -1.896000
12.653000 1.548000 -1.899000
12.646000 1.568000 -1.898000
12.608000 1.603000 -1.893000
12.466000 1.625000 -1.871000
12.439000 1.661000 -1.868000
12.420000 1.698000 -1.865000
12.593000 1.762000 -1.894000
12.632000 1.808000 -1.901000
12.622000 1.827000 -1.900000
12.626000 1.868000 -1.902000
12.598000 1.905000 -1.898000
12.580000 1.942000 -1.896000
12.557000 1.979000 -1.893000
12.533000 2.016000 -1.891000
12.509000 2.052000 -1.888000
12.508000 2.072000 -1.888000
12.470000 2.106000 -1.883000
12.448000 2.142000 -1.881000
12.429000 2.179000 -1.879000
12.422000 2.219000 -1.879000
12.398000 2.254000 -1.876000
12.377000 2.291000 -1.874000
12.393000 2.314000 -1.877000
12.364000 2.349000 -1.873000
12.361000 2.388000 -1.874000
12.353000 2.427000 -1.874000
12.343000 2.465000 -1.874000
12.326000 2.502000 -1.872000
12.299000 2.537000 -1.869000
12.314000 2.560000 -1.872000
12.296000 2.597000 -1.871000
12.307000 2.640000 -1.874000
12.326000 2.684000 -1.878000
12.325000 2.725000 -1.879000
12.320000 2.764000 -1.880000
12.339000 2.789000 -1.884000
12.342000 2.830000 -1.886000
12.352000 2.874000 -1.889000
12.362000 2.917000 -1.892000
12.393000 2.966000 -1.898000
12.369000 3.001000 -1.896000
12.371000 3.042000 -1.898000
12.366000 3.062000 -1.898000
12.370000 3.104000 -1.900000
12.367000 3.145000 -1.901000
12.369000 3.187000 -1.903000
12.368000 3.228000 -1.905000
12.374000 3.271000 -1.907000
12.354000 3.307000 -1.906000
12.354000 3.328000 -1.907000
12.344000 3.367000 -1.907000
12.301000 3.397000 -1.901000
12.355000 3.454000 -1.912000
12.330000 3.489000 -1.910000
12.300000 3.522000 -1.907000
12.187000 3.531000 -1.890000
12.121000 3.532000 -1.880000
12.108000 3.569000 -1.879000
12.117000 3.614000 -1.883000
12.119000 3.656000 -1.885000
12.096000 3.690000 -1.883000
12.115000 3.738000 -1.888000
12.135000 3.786000 -1.893000
12.153000 3.813000 -1.897000
12.121000 3.844000 -1.894000
12.101000 3.880000 -1.893000
12.106000 3.923000 -1.896000
12.112000 3.967000 -1.899000
12.073000 3.997000 -1.894000
11.359000 3.779000 -1.776000
11.164000 3.752000 -1.745000
11.068000 3.758000 -1.731000
10.981000 3.767000 -1.718000
10.882000 3.771000 -1.704000
10.793000 3.778000 -1.691000
10.696000 3.782000 -1.676000
10.604000 3.768000 -1.662000
10.529000 3.778000 -1.651000
10.508000 3.808000 -1.650000
10.502000 3.843000 -1.651000
10.510000 3.884000 -1.654000
10.507000 3.920000 -1.656000
10.507000 3.958000 -1.658000
10.496000 3.973000 -1.657000
10.323000 3.944000 -1.630000
10.419000 4.018000 -1.648000
10.338000 4.024000 -1.636000
10.258000 4.030000 -1.625000
10.184000 4.038000 -1.614000
10.082000 4.034000 -1.599000
10.000000 4.019000 -1.586000
9.944000 4.033000 -1.579000
9.858000 4.034000 -1.566000
9.772000 4.034000 -1.554000
9.692000 4.037000 -1.542000
9.632000 4.047000 -1.534000
9.540000 4.043000 -1.520000
9.495000 4.042000 -1.513000
9.403000 4.037000 -1.500000
9.326000 4.039000 -1.489000
9.272000 4.050000 -1.481000
9.198000 4.052000 -1.471000
9.122000 4.053000 -1.460000
9.067000 4.045000 -1.451000
8.993000 4.046000 -1.441000
8.932000 4.052000 -1.432000
8.872000 4.059000 -1.424000
8.793000 4.056000 -1.412000
8.734000 4.062000 -1.404000
8.673000 4.066000 -1.396000
8.597000 4.047000 -1.384000
8.554000 4.059000 -1.378000
8.486000 4.060000 -1.368000
8.427000 4.064000 -1.360000
8.365000 4.066000 -1.352000
8.302000 4.068000 -1.343000
8.241000 4.054000 -1.333000
8.184000 4.057000 -1.325000
8.127000 4.061000 -1.317000
8.068000 4.063000 -1.309000
8.026000 4.073000 -1.304000
7.960000 4.071000 -1.294000
7.897000 4.070000 -1.285000
7.867000 4.070000 -1.281000
7.799000 4.066000 -1.271000
7.332000 3.850000 -1.190000
7.287000 3.855000 -1.184000
7.233000 3.856000 -1.176000
7.186000 3.860000 -1.170000
7.144000 3.866000 -1.165000
7.093000 3.853000 -1.156000
7.043000 3.854000 -1.149000
6.996000 3.857000 -1.143000
6.950000 3.860000 -1.137000
6.913000 3.868000 -1.133000
6.913000 3.896000 -1.135000
6.904000 3.920000 -1.135000
6.914000 3.940000 -1.138000
6.915000 3.969000 -1.141000
6.916000 3.999000 -1.143000
6.885000 4.010000 -1.140000
6.639000 3.894000 -1.097000
6.550000 3.869000 -1.083000
6.488000 3.846000 -1.072000
6.464000 3.859000 -1.070000
6.417000 3.858000 -1.063000
6.386000 3.867000 -1.060000
6.345000 3.869000 -1.055000
6.306000 3.872000 -1.050000
6.296000 3.893000 -1.050000
6.291000 3.904000 -1.050000
6.294000 3.933000 -1.053000
6.283000 3.954000 -1.053000
6.223000 3.943000 -1.044000
6.064000 3.869000 -1.017000
6.009000 3.860000 -1.009000
5.980000 3.868000 -1.005000
5.942000 3.857000 -0.999000
5.920000 3.869000 -0.998000
5.893000 3.878000 -0.995000
5.853000 3.877000 -0.989000
5.828000 3.887000 -0.987000
5.804000 3.897000 -0.985000
5.772000 3.902000 -0.981000
5.911000 4.011000 -1.009000
5.773000 3.943000 -0.985000
5.768000 3.966000 -0.986000
5.776000 3.998000 -0.990000
5.773000 4.023000 -0.992000
5.775000 4.052000 -0.995000
5.770000 4.076000 -0.996000
5.785000 4.099000 -1.000000
5.780000 4.123000 -1.002000
5.793000 4.160000 -1.007000
6.353000 4.596000 -1.120000
6.413000 4.671000 -1.134000
6.408000 4.698000 -1.136000
6.369000 4.700000 -1.132000
6.335000 4.690000 -1.126000
6.314000 4.705000 -1.125000
6.252000 4.689000 -1.116000
5.779000 4.361000 -1.024000
5.719000 4.343000 -1.015000
5.686000 4.347000 -1.011000
5.686000 4.360000 -1.012000
5.583000 4.309000 -0.994000
5.601000 4.351000 -1.001000
5.697000 4.455000 -1.023000
5.590000 4.400000 -1.004000
5.481000 4.341000 -0.985000
5.560000 4.419000 -1.002000
5.562000 4.448000 -1.005000
5.465000 4.399000 -0.989000
5.498000 4.455000 -0.998000
5.348000 4.360000 -0.970000
5.348000 4.388000 -0.973000
5.251000 4.336000 -0.956000
5.259000 4.357000 -0.959000
5.220000 4.351000 -0.954000
5.233000 4.391000 -0.959000
5.113000 4.316000 -0.937000
5.177000 4.399000 -0.953000
5.196000 4.444000 -0.960000
5.100000 4.389000 -0.943000
5.049000 4.358000 -0.934000
5.112000 4.441000 -0.950000
4.999000 4.370000 -0.929000
4.966000 4.369000 -0.925000
4.936000 4.370000 -0.921000
4.955000 4.414000 -0.928000
4.904000 4.397000 -0.920000
4.855000 4.366000 -0.911000
4.917000 4.450000 -0.928000
4.836000 4.404000 -0.913000
4.797000 4.397000 -0.908000
4.703000 4.337000 -0.890000
4.751000 4.409000 -0.904000
4.701000 4.390000 -0.896000
4.696000 4.399000 -0.896000
4.663000 4.396000 -0.892000
4.698000 4.457000 -0.903000
4.667000 4.455000 -0.899000
4.563000 4.384000 -0.879000
4.510000 4.359000 -0.871000
4.555000 4.431000 -0.884000
4.547000 4.437000 -0.883000
4.528000 4.446000 -0.882000
4.432000 4.379000 -0.864000
4.399000 4.374000 -0.860000
4.399000 4.401000 -0.863000
4.348000 4.377000 -0.854000
4.344000 4.387000 -0.855000
4.373000 4.444000 -0.865000
4.337000 4.435000 -0.860000
4.247000 4.371000 -0.842000
4.197000 4.346000 -0.834000
4.182000 4.357000 -0.834000
4.216000 4.421000 -0.844000
4.229000 4.449000 -0.849000
4.116000 4.357000 -0.826000
4.082000 4.348000 -0.822000
4.169000 4.470000 -0.845000
4.146000 4.472000 -0.843000
4.013000 4.356000 -0.815000
4.160000 4.545000 -0.853000
4.094000 4.486000 -0.839000
4.017000 4.430000 -0.824000
4.034000 4.476000 -0.831000
3.993000 4.459000 -0.825000
3.900000 4.381000 -0.806000
3.912000 4.423000 -0.812000
3.877000 4.412000 -0.807000
3.828000 4.369000 -0.797000
3.751000 4.307000 -0.781000
3.801000 4.394000 -0.797000
3.816000 4.439000 -0.804000
3.798000 4.447000 -0.803000
3.783000 4.457000 -0.803000
3.772000 4.473000 -0.804000
3.741000 4.450000 -0.798000
3.724000 4.458000 -0.797000
3.693000 4.449000 -0.793000
3.664000 4.443000 -0.789000
3.650000 4.454000 -0.789000
3.613000 4.436000 -0.783000
3.595000 4.428000 -0.780000
3.455000 4.282000 -0.748000
3.617000 4.514000 -0.793000
3.548000 4.456000 -0.779000
3.540000 4.475000 -0.780000
3.563000 4.534000 -0.790000
3.494000 4.473000 -0.776000
3.460000 4.459000 -0.771000
3.490000 4.513000 -0.780000
3.457000 4.499000 -0.775000
3.364000 4.406000 -0.755000
3.342000 4.405000 -0.753000
3.294000 4.370000 -0.743000
3.330000 4.447000 -0.757000
3.352000 4.492000 -0.764000
3.301000 4.451000 -0.754000
3.277000 4.449000 -0.752000
3.301000 4.512000 -0.762000
3.268000 4.495000 -0.757000
3.209000 4.443000 -0.745000
3.208000 4.472000 -0.748000
3.212000 4.492000 -0.751000
3.158000 4.445000 -0.740000
3.171000 4.494000 -0.748000
3.184000 4.543000 -0.755000
3.142000 4.512000 -0.748000
3.115000 4.504000 -0.744000
3.130000 4.556000 -0.752000
3.107000 4.538000 -0.748000
3.116000 4.582000 -0.754000
3.008000 4.453000 -0.728000
2.982000 4.444000 -0.724000
2.985000 4.478000 -0.729000
2.971000 4.487000 -0.729000
2.978000 4.530000 -0.735000
2.980000 4.549000 -0.738000
3.001000 4.614000 -0.748000
2.920000 4.518000 -0.729000
2.874000 4.477000 -0.719000
2.860000 4.486000 -0.719000
2.839000 4.485000 -0.717000
2.819000 4.484000 -0.716000
2.812000 4.488000 -0.716000
2.792000 4.487000 -0.714000
2.779000 4.498000 -0.714000
2.714000 4.424000 -0.699000
2.682000 4.402000 -0.693000
2.805000 4.639000 -0.735000
2.687000 4.473000 -0.703000
2.725000 4.553000 -0.717000
2.671000 4.494000 -0.705000
2.730000 4.629000 -0.728000
2.699000 4.608000 -0.722000
2.610000 4.488000 -0.699000
2.572000 4.453000 -0.691000
2.528000 4.408000 -0.681000
2.578000 4.514000 -0.700000
2.560000 4.515000 -0.699000
2.592000 4.606000 -0.714000
2.555000 4.574000 -0.706000
2.589000 4.670000 -0.722000
2.608000 4.739000 -0.733000
2.577000 4.700000 -0.726000
2.550000 4.685000 -0.721000
2.443000 4.521000 -0.690000
2.419000 4.511000 -0.687000
2.397000 4.503000 -0.684000
2.364000 4.474000 -0.678000
2.341000 4.463000 -0.675000
2.358000 4.514000 -0.683000
2.350000 4.534000 -0.685000
2.326000 4.522000 -0.682000
2.297000 4.499000 -0.677000
2.322000 4.586000 -0.691000
2.313000 4.604000 -0.693000
2.303000 4.620000 -0.694000
2.271000 4.592000 -0.688000
2.159000 4.379000 -0.650000
2.120000 4.334000 -0.641000
2.131000 4.392000 -0.650000
2.151000 4.470000 -0.662000
2.099000 4.397000 -0.648000
2.089000 4.412000 -0.650000
2.096000 4.444000 -0.655000
2.084000 4.456000 -0.656000
2.052000 4.423000 -0.649000
2.056000 4.467000 -0.655000
2.031000 4.450000 -0.651000
2.020000 4.464000 -0.652000
1.992000 4.438000 -0.647000
1.988000 4.448000 -0.648000
1.959000 4.420000 -0.642000
1.916000 4.359000 -0.630000
1.944000 4.461000 -0.647000
1.976000 4.576000 -0.666000
1.929000 4.504000 -0.652000
1.899000 4.474000 -0.646000
1.881000 4.449000 -0.641000
1.881000 4.490000 -0.647000
1.873000 4.510000 -0.650000
1.891000 4.597000 -0.664000
1.870000 4.586000 -0.661000
1.867000 4.620000 -0.666000
1.859000 4.642000 -0.668000
1.873000 4.698000 -0.678000
1.771000 4.481000 -0.640000
1.763000 4.502000 -0.642000
1.747000 4.503000 -0.641000
1.795000 4.673000 -0.669000
1.771000 4.653000 -0.665000
1.746000 4.631000 -0.660000
1.769000 4.715000 -0.674000
1.705000 4.587000 -0.652000
1.659000 4.505000 -0.637000
1.634000 4.479000 -0.631000
1.602000 4.434000 -0.623000
1.587000 4.437000 -0.623000
1.582000 4.468000 -0.627000
1.571000 4.459000 -0.625000
1.571000 4.503000 -0.632000
1.574000 4.559000 -0.640000
1.569000 4.592000 -0.645000
1.544000 4.565000 -0.640000
1.525000 4.556000 -0.637000
1.497000 4.520000 -0.630000
1.479000 4.486000 -0.625000
1.463000 4.485000 -0.624000
1.452000 4.501000 -0.625000
1.442000 4.517000 -0.627000
1.419000 4.495000 -0.623000
1.405000 4.500000 -0.623000
1.394000 4.513000 -0.625000
1.393000 4.536000 -0.628000
1.373000 4.522000 -0.625000
1.347000 4.486000 -0.618000
1.338000 4.508000 -0.621000
1.339000 4.563000 -0.630000
1.310000 4.518000 -0.621000
1.307000 4.562000 -0.628000
1.292000 4.534000 -0.623000
1.278000 4.539000 -0.623000
1.296000 4.662000 -0.643000
1.295000 4.717000 -0.651000
1.275000 4.700000 -0.648000
1.240000 4.630000 -0.636000
1.228000 4.643000 -0.637000
1.210000 4.603000 -0.630000
1.193000 4.595000 -0.628000
1.174000 4.584000 -0.626000
1.167000 4.614000 -0.630000
1.174000 4.708000 -0.645000
1.142000 4.639000 -0.633000
1.146000 4.721000 -0.646000
1.122000 4.652000 -0.634000
1.092000 4.592000 -0.624000
1.076000 4.587000 -0.623000
1.072000 4.635000 -0.630000
1.067000 4.681000 -0.637000
1.050000 4.675000 -0.635000
1.022000 4.618000 -0.625000
0.991000 4.509000 -0.608000
0.998000 4.611000 -0.624000
0.981000 4.601000 -0.621000
0.973000 4.635000 -0.626000
0.956000 4.628000 -0.625000
0.947000 4.658000 -0.629000
0.928000 4.640000 -0.626000
0.911000 4.589000 -0.617000
0.902000 4.625000 -0.623000
0.886000 4.616000 -0.621000
0.866000 4.591000 -0.616000
0.856000 4.617000 -0.620000
0.843000 4.626000 -0.621000
0.822000 4.595000 -0.616000
0.811000 4.575000 -0.612000
0.796000 4.572000 -0.611000
0.790000 4.627000 -0.620000
0.777000 4.635000 -0.621000
0.764000 4.652000 -0.623000
0.749000 4.650000 -0.622000
0.734000 4.650000 -0.622000
0.726000 4.648000 -0.621000
0.708000 4.624000 -0.617000
0.679000 4.529000 -0.602000
0.670000 4.562000 -0.607000
0.665000 4.633000 -0.618000
0.646000 4.608000 -0.613000
0.629000 4.590000 -0.610000
0.616000 4.542000 -0.602000
0.602000 4.546000 -0.603000
0.589000 4.561000 -0.605000
0.581000 4.612000 -0.613000
0.565000 4.600000 -0.610000
0.544000 4.547000 -0.602000
0.523000 4.492000 -0.593000
0.520000 4.526000 -0.598000
0.520000 4.665000 -0.620000
0.493000 4.545000 -0.600000
0.479000 4.549000 -0.601000
0.464000 4.544000 -0.600000
0.451000 4.553000 -0.601000
0.430000 4.486000 -0.590000
0.423000 4.487000 -0.590000
0.413000 4.531000 -0.597000
0.402000 4.578000 -0.604000
0.392000 4.632000 -0.613000
0.374000 4.584000 -0.605000
0.356000 4.540000 -0.598000
0.344000 4.569000 -0.602000
0.341000 4.636000 -0.613000
0.325000 4.608000 -0.608000
0.312000 4.636000 -0.612000
0.300000 4.690000 -0.621000
0.277000 4.538000 -0.596000
0.263000 4.544000 -0.597000
0.252000 4.620000 -0.609000
0.238000 4.465000 -0.584000
0.222000 4.428000 -0.578000
0.207000 4.397000 -0.573000
0.193000 4.390000 -0.572000
0.183000 4.499000 -0.589000
0.168000 4.476000 -0.586000
0.153000 4.435000 -0.579000
0.146000 4.431000 -0.578000
0.131000 4.422000 -0.577000
0.119000 4.491000 -0.588000
0.105000 4.523000 -0.593000
0.091000 4.500000 -0.589000
0.077000 4.506000 -0.590000
0.063000 4.514000 -0.591000
0.055000 4.477000 -0.585000
0.041000 4.425000 -0.577000
0.027000 4.427000 -0.577000
0.013000 4.431000 -0.578000
-0.001000 4.439000 -0.579000
-0.015000 4.465000 -0.583000
-0.029000 4.443000 -0.580000
-0.036000 4.455000 -0.582000
-0.051000 4.534000 -0.594000
-0.064000 4.457000 -0.582000
-0.078000 4.453000 -0.582000
-0.091000 4.438000 -0.579000
-0.106000 4.480000 -0.586000
-0.122000 4.515000 -0.592000
-0.127000 4.471000 -0.585000
-0.141000 4.473000 -0.585000
-0.156000 4.482000 -0.587000
-0.169000 4.466000 -0.584000
-0.184000 4.473000 -0.585000
-0.201000 4.532000 -0.595000
-0.217000 4.567000 -0.600000
